ply
format ascii 1.0
comment Created by Open3D
element vertex 3203
property double x
property double y
property double z
end_header
99 95 -8.3684
100 95 -8.3684
101 95 -8.3684
102 95 -8.3684
103 95 -8.3684
104 95 -8.3684
105 95 -8.3684
106 95 -8.3684
107 95 -8.3684
108 95 -8.3684
109 95 -8.3684
110 95 -8.3684
111 95 -8.3684
112 95 -8.3684
113 95 -8.3684
114 95 -8.3684
115 95 -8.3684
116 95 -8.3684
117 95 -8.3684
118 95 -8.3684
119 95 -8.3684
0 96 -8.3684
1 96 -8.3684
2 96 -8.3684
3 96 -8.3684
4 96 -8.3684
5 96 -8.3684
6 96 -8.3684
7 96 -8.3684
8 96 -8.3684
9 96 -8.3684
10 96 -8.3684
11 96 -8.3684
12 96 -8.3684
13 96 -8.3684
14 96 -8.3684
15 96 -8.3684
16 96 -8.3684
17 96 -8.3684
18 96 -8.3684
19 96 -8.3684
20 96 -8.3684
21 96 -8.3684
22 96 -8.3684
23 96 -8.3684
24 96 -8.3684
25 96 -8.3684
26 96 -8.3684
27 96 -8.3684
28 96 -8.3684
29 96 -8.3684
30 96 -8.3684
31 96 -8.3684
32 96 -2.70345
33 96 -2.36723
34 96 -1.0656
35 96 0.900383
36 96 2.80618
37 96 4.15849
38 96 5.05759
39 96 5.65737
40 96 6.11264
41 96 6.55647
42 96 6.98746
43 96 7.34727
44 96 7.63524
45 96 7.84099
46 96 7.97546
47 96 8.09252
48 96 8.21395
49 96 8.3893
50 96 8.61988
51 96 8.88666
52 96 9.16156
53 96 9.46593
54 96 9.79276
55 96 10.1403
56 96 10.524
57 96 10.9836
58 96 11.4698
59 96 11.9229
60 96 12.311
61 96 12.6042
62 96 12.7509
63 96 12.7761
64 96 12.7213
65 96 12.6221
66 96 12.5084
67 96 12.3915
68 96 12.2887
69 96 12.2201
70 96 12.1736
71 96 12.1373
72 96 12.1086
73 96 12.0071
74 96 11.7518
75 96 11.3411
76 96 10.6396
77 96 9.75622
78 96 8.81414
79 96 7.88808
80 96 7.03816
81 96 6.36329
82 96 5.78863
83 96 5.37312
84 96 5.09671
85 96 4.85252
86 96 4.62917
87 96 4.17018
88 96 3.33145
89 96 1.57084
90 96 -0.522984
91 96 -1.59124
92 96 -2.08325
93 96 -8.3684
94 96 -8.3684
95 96 -8.3684
96 96 -8.3684
97 96 -8.3684
98 96 -8.3684
99 96 -8.3684
100 96 -8.3684
101 96 -8.3684
102 96 -8.3684
103 96 -8.3684
104 96 -8.3684
105 96 -8.3684
106 96 -8.3684
107 96 -8.3684
108 96 -8.3684
109 96 -8.3684
110 96 -8.3684
111 96 -8.3684
112 96 -8.3684
113 96 -8.3684
114 96 -8.3684
115 96 -8.3684
116 96 -8.3684
117 96 -8.3684
118 96 -8.3684
119 96 -8.3684
0 97 -8.3684
1 97 -8.3684
2 97 -8.3684
3 97 -8.3684
4 97 -8.3684
5 97 -8.3684
6 97 -8.3684
7 97 -8.3684
8 97 -8.3684
9 97 -8.3684
10 97 -8.3684
11 97 -8.3684
12 97 -8.3684
13 97 -8.3684
14 97 -8.3684
15 97 -8.3684
16 97 -8.3684
17 97 -8.3684
18 97 -8.3684
19 97 -8.3684
20 97 -8.3684
21 97 -8.3684
22 97 -8.3684
23 97 -8.3684
24 97 -8.3684
25 97 -8.3684
26 97 -8.3684
27 97 -8.3684
28 97 -8.3684
29 97 -8.3684
30 97 -8.3684
31 97 -8.3684
32 97 -2.64834
33 97 -2.46698
34 97 -1.55749
35 97 0.156171
36 97 2.25875
37 97 3.82745
38 97 4.86332
39 97 5.55678
40 97 6.04598
41 97 6.47982
42 97 6.87074
43 97 7.16148
44 97 7.34361
45 97 7.44255
46 97 7.50668
47 97 7.58848
48 97 7.70859
49 97 7.89995
50 97 8.15499
51 97 8.42983
52 97 8.69363
53 97 9.00481
54 97 9.3559
55 97 9.72161
56 97 10.1401
57 97 10.65
58 97 11.1872
59 97 11.7027
60 97 12.1551
61 97 12.499
62 97 12.6896
63 97 12.7508
64 97 12.7111
65 97 12.624
66 97 12.5136
67 97 12.3873
68 97 12.2622
69 97 12.1685
70 97 12.0895
71 97 12.017
72 97 11.9648
73 97 11.8459
74 97 11.5925
75 97 11.2169
76 97 10.5688
77 97 9.72212
78 97 8.81137
79 97 7.88829
80 97 7.016
81 97 6.29908
82 97 5.68271
83 97 5.23975
84 97 4.9872
85 97 4.76823
86 97 4.57867
87 97 4.1605
88 97 3.35799
89 97 1.40918
90 97 -0.416141
91 97 -1.23923
92 97 -1.7333
93 97 -8.3684
94 97 -8.3684
95 97 -8.3684
96 97 -8.3684
97 97 -8.3684
98 97 -8.3684
99 97 -8.3684
100 97 -8.3684
101 97 -8.3684
102 97 -8.3684
103 97 -8.3684
104 97 -8.3684
105 97 -8.3684
106 97 -8.3684
107 97 -8.3684
108 97 -8.3684
109 97 -8.3684
110 97 -8.3684
111 97 -8.3684
112 97 -8.3684
113 97 -8.3684
114 97 -8.3684
115 97 -8.3684
116 97 -8.3684
117 97 -8.3684
118 97 -8.3684
119 97 -8.3684
0 98 -8.3684
1 98 -8.3684
2 98 -8.3684
3 98 -8.3684
4 98 -8.3684
5 98 -8.3684
6 98 -8.3684
7 98 -8.3684
8 98 -8.3684
9 98 -8.3684
10 98 -8.3684
11 98 -8.3684
12 98 -8.3684
13 98 -8.3684
14 98 -8.3684
15 98 -8.3684
16 98 -8.3684
17 98 -8.3684
18 98 -8.3684
19 98 -8.3684
20 98 -8.3684
21 98 -8.3684
22 98 -8.3684
23 98 -8.3684
24 98 -8.3684
25 98 -8.3684
26 98 -8.3684
27 98 -8.3684
28 98 -8.3684
29 98 -8.3684
30 98 -8.3684
31 98 -8.3684
32 98 -8.3684
33 98 -2.20116
34 98 -1.71804
35 98 -0.316725
36 98 1.63472
37 98 3.42042
38 98 4.63246
39 98 5.43999
40 98 5.97582
41 98 6.36902
42 98 6.63521
43 98 6.78878
44 98 6.84106
45 98 6.82505
46 98 6.83364
47 98 6.95553
48 98 7.13986
49 98 7.39111
50 98 7.70222
51 98 8.02919
52 98 8.3334
53 98 8.67572
54 98 9.04697
55 98 9.42554
56 98 9.86337
57 98 10.3922
58 98 10.9564
59 98 11.5107
60 98 12.0121
61 98 12.394
62 98 12.6084
63 98 12.6868
64 98 12.6666
65 98 12.5923
66 98 12.4819
67 98 12.3481
68 98 12.2116
69 98 12.086
70 98 11.9747
71 98 11.8738
72 98 11.8006
73 98 11.6737
74 98 11.4347
75 98 11.1054
76 98 10.5331
77 98 9.75424
78 98 8.88197
79 98 7.96194
80 98 7.06849
81 98 6.28848
82 98 5.57901
83 98 5.07398
84 98 4.82699
85 98 4.63634
86 98 4.46669
87 98 4.12304
88 98 3.41017
89 98 1.30823
90 98 -0.217061
91 98 -1.03556
92 98 -8.3684
93 98 -8.3684
94 98 -8.3684
95 98 -8.3684
96 98 -8.3684
97 98 -8.3684
98 98 -8.3684
99 98 -8.3684
100 98 -8.3684
101 98 -8.3684
102 98 -8.3684
103 98 -8.3684
104 98 -8.3684
105 98 -8.3684
106 98 -8.3684
107 98 -8.3684
108 98 -8.3684
109 98 -8.3684
110 98 -8.3684
111 98 -8.3684
112 98 -8.3684
113 98 -8.3684
114 98 -8.3684
115 98 -8.3684
116 98 -8.3684
117 98 -8.3684
118 98 -8.3684
119 98 -8.3684
0 99 -8.3684
1 99 -8.3684
2 99 -8.3684
3 99 -8.3684
4 99 -8.3684
5 99 -8.3684
6 99 -8.3684
7 99 -8.3684
8 99 -8.3684
9 99 -8.3684
10 99 -8.3684
11 99 -8.3684
12 99 -8.3684
13 99 -8.3684
14 99 -8.3684
15 99 -8.3684
16 99 -8.3684
17 99 -8.3684
18 99 -8.3684
19 99 -8.3684
20 99 -8.3684
21 99 -8.3684
22 99 -8.3684
23 99 -8.3684
24 99 -8.3684
25 99 -8.3684
26 99 -8.3684
27 99 -8.3684
28 99 -8.3684
29 99 -8.3684
30 99 -8.3684
31 99 -8.3684
32 99 -8.3684
33 99 -2.21047
34 99 -1.86513
35 99 -0.827752
36 99 0.909193
37 99 2.93222
38 99 4.30752
39 99 5.20786
40 99 5.7616
41 99 6.06299
42 99 6.17975
43 99 6.18603
44 99 6.10587
45 99 6.01337
46 99 6.02194
47 99 6.22457
48 99 6.52033
49 99 6.90064
50 99 7.32248
51 99 7.75354
52 99 8.13189
53 99 8.53018
54 99 8.92407
55 99 9.31723
56 99 9.76407
57 99 10.2836
58 99 10.8307
59 99 11.3838
60 99 11.8926
61 99 12.2766
62 99 12.5041
63 99 12.5977
64 99 12.5951
65 99 12.5321
66 99 12.4233
67 99 12.2856
68 99 12.138
69 99 11.9912
70 99 11.8565
71 99 11.7356
72 99 11.6455
73 99 11.5203
74 99 11.3057
75 99 11.0236
76 99 10.5289
77 99 9.83227
78 99 9.00472
79 99 8.09686
80 99 7.17663
81 99 6.3324
82 99 5.53262
83 99 4.92721
84 99 4.67718
85 99 4.49974
86 99 4.34573
87 99 4.01801
88 99 3.23745
89 99 1.28158
90 99 0.0842988
91 99 -0.728198
92 99 -8.3684
93 99 -8.3684
94 99 -8.3684
95 99 -8.3684
96 99 -8.3684
97 99 -8.3684
98 99 -8.3684
99 99 -8.3684
100 99 -8.3684
101 99 -8.3684
102 99 -8.3684
103 99 -8.3684
104 99 -8.3684
105 99 -8.3684
106 99 -8.3684
107 99 -8.3684
108 99 -8.3684
109 99 -8.3684
110 99 -8.3684
111 99 -8.3684
112 99 -8.3684
113 99 -8.3684
114 99 -8.3684
115 99 -8.3684
116 99 -8.3684
117 99 -8.3684
118 99 -8.3684
119 99 -8.3684
0 100 -8.3684
1 100 -8.3684
2 100 -8.3684
3 100 -8.3684
4 100 -8.3684
5 100 -8.3684
6 100 -8.3684
7 100 -8.3684
8 100 -8.3684
9 100 -8.3684
10 100 -8.3684
11 100 -8.3684
12 100 -8.3684
13 100 -8.3684
14 100 -8.3684
15 100 -8.3684
16 100 -8.3684
17 100 -8.3684
18 100 -8.3684
19 100 -8.3684
20 100 -8.3684
21 100 -8.3684
22 100 -8.3684
23 100 -8.3684
24 100 -8.3684
25 100 -8.3684
26 100 -8.3684
27 100 -8.3684
28 100 -8.3684
29 100 -8.3684
30 100 -8.3684
31 100 -8.3684
32 100 -8.3684
33 100 -8.3684
34 100 -1.60365
35 100 -0.983308
36 100 0.46408
37 100 2.30754
38 100 3.8166
39 100 4.74997
40 100 5.26758
41 100 5.45869
42 100 5.4686
43 100 5.34303
44 100 5.17354
45 100 5.07585
46 100 5.17351
47 100 5.51364
48 100 5.99025
49 100 6.54886
50 100 7.14618
51 100 7.70577
52 100 8.18253
53 100 8.62703
54 100 9.04948
55 100 9.44411
56 100 9.86556
57 100 10.3404
58 100 10.8398
59 100 11.3431
60 100 11.8134
61 100 12.1763
62 100 12.3981
63 100 12.5001
64 100 12.5126
65 100 12.4608
66 100 12.3505
67 100 12.2107
68 100 12.0568
69 100 11.8978
70 100 11.7503
71 100 11.6262
72 100 11.5293
73 100 11.4133
74 100 11.2329
75 100 10.9878
76 100 10.5784
77 100 9.96343
78 100 9.19676
79 100 8.3054
80 100 7.35994
81 100 6.453
82 100 5.5845
83 100 4.8521
84 100 4.51586
85 100 4.32822
86 100 4.18703
87 100 3.86501
88 100 2.93339
89 100 1.22654
90 100 0.301571
91 100 -0.524327
92 100 -8.3684
93 100 -8.3684
94 100 -8.3684
95 100 -8.3684
96 100 -8.3684
97 100 -8.3684
98 100 -8.3684
99 100 -8.3684
100 100 -8.3684
101 100 -8.3684
102 100 -8.3684
103 100 -8.3684
104 100 -8.3684
105 100 -8.3684
106 100 -8.3684
107 100 -8.3684
108 100 -8.3684
109 100 -8.3684
110 100 -8.3684
111 100 -8.3684
112 100 -8.3684
113 100 -8.3684
114 100 -8.3684
115 100 -8.3684
116 100 -8.3684
117 100 -8.3684
118 100 -8.3684
119 100 -8.3684
0 101 -8.3684
1 101 -8.3684
2 101 -8.3684
3 101 -8.3684
4 101 -8.3684
5 101 -8.3684
6 101 -8.3684
7 101 -8.3684
8 101 -8.3684
9 101 -8.3684
10 101 -8.3684
11 101 -8.3684
12 101 -8.3684
13 101 -8.3684
14 101 -8.3684
15 101 -8.3684
16 101 -8.3684
17 101 -8.3684
18 101 -8.3684
19 101 -8.3684
20 101 -8.3684
21 101 -8.3684
22 101 -8.3684
23 101 -8.3684
24 101 -8.3684
25 101 -8.3684
26 101 -8.3684
27 101 -8.3684
28 101 -8.3684
29 101 -8.3684
30 101 -8.3684
31 101 -8.3684
32 101 -8.3684
33 101 -8.3684
34 101 -1.63575
35 101 -1.15663
36 101 -0.106505
37 101 1.47083
38 101 3.15403
39 101 4.05322
40 101 4.50021
41 101 4.61111
42 101 4.53876
43 101 4.33467
44 101 4.17126
45 101 4.18537
46 101 4.43996
47 101 4.96705
48 101 5.66952
49 101 6.41489
50 101 7.17565
51 101 7.86549
52 101 8.44745
53 101 8.94014
54 101 9.39855
55 101 9.78474
56 101 10.1699
57 101 10.5782
58 101 10.9932
59 101 11.4054
60 101 11.7951
61 101 12.0993
62 101 12.2948
63 101 12.3902
64 101 12.4116
65 101 12.3716
66 101 12.2655
67 101 12.1324
68 101 11.987
69 101 11.8296
70 101 11.6827
71 101 11.5712
72 101 11.4858
73 101 11.3944
74 101 11.2528
75 101 11.0445
76 101 10.7063
77 101 10.1575
78 101 9.43686
79 101 8.56165
80 101 7.59939
81 101 6.62953
82 101 5.68596
83 101 4.82817
84 101 4.30855
85 101 4.10641
86 101 3.94428
87 101 3.65106
88 101 2.42499
89 101 1.09458
90 101 0.177231
91 101 -8.3684
92 101 -8.3684
93 101 -8.3684
94 101 -8.3684
95 101 -8.3684
96 101 -8.3684
97 101 -8.3684
98 101 -8.3684
99 101 -8.3684
100 101 -8.3684
101 101 -8.3684
102 101 -8.3684
103 101 -8.3684
104 101 -8.3684
105 101 -8.3684
106 101 -8.3684
107 101 -8.3684
108 101 -8.3684
109 101 -8.3684
110 101 -8.3684
111 101 -8.3684
112 101 -8.3684
113 101 -8.3684
114 101 -8.3684
115 101 -8.3684
116 101 -8.3684
117 101 -8.3684
118 101 -8.3684
119 101 -8.3684
0 102 -8.3684
1 102 -8.3684
2 102 -8.3684
3 102 -8.3684
4 102 -8.3684
5 102 -8.3684
6 102 -8.3684
7 102 -8.3684
8 102 -8.3684
9 102 -8.3684
10 102 -8.3684
11 102 -8.3684
12 102 -8.3684
13 102 -8.3684
14 102 -8.3684
15 102 -8.3684
16 102 -8.3684
17 102 -8.3684
18 102 -8.3684
19 102 -8.3684
20 102 -8.3684
21 102 -8.3684
22 102 -8.3684
23 102 -8.3684
24 102 -8.3684
25 102 -8.3684
26 102 -8.3684
27 102 -8.3684
28 102 -8.3684
29 102 -8.3684
30 102 -8.3684
31 102 -8.3684
32 102 -8.3684
33 102 -8.3684
34 102 -8.3684
35 102 -1.03707
36 102 -0.465178
37 102 0.761521
38 102 2.2356
39 102 3.12656
40 102 3.52642
41 102 3.5729
42 102 3.44483
43 102 3.23574
44 102 3.18775
45 102 3.41406
46 102 3.89274
47 102 4.64895
48 102 5.5696
49 102 6.49058
50 102 7.39273
51 102 8.19669
52 102 8.86702
53 102 9.39908
54 102 9.86188
55 102 10.2289
56 102 10.5716
57 102 10.9072
58 102 11.2347
59 102 11.5394
60 102 11.8278
61 102 12.0537
62 102 12.1981
63 102 12.2734
64 102 12.3041
65 102 12.2724
66 102 12.1805
67 102 12.0662
68 102 11.9373
69 102 11.7897
70 102 11.6599
71 102 11.5762
72 102 11.5092
73 102 11.4508
74 102 11.3545
75 102 11.1889
76 102 10.8863
77 102 10.3881
78 102 9.706
79 102 8.85925
80 102 7.87304
81 102 6.86558
82 102 5.84922
83 102 4.88799
84 102 4.19472
85 102 3.84954
86 102 3.61453
87 102 3.36176
88 102 1.83423
89 102 0.887805
90 102 0.0931255
91 102 -8.3684
92 102 -8.3684
93 102 -8.3684
94 102 -8.3684
95 102 -8.3684
96 102 -8.3684
97 102 -8.3684
98 102 -8.3684
99 102 -8.3684
100 102 -8.3684
101 102 -8.3684
102 102 -8.3684
103 102 -8.3684
104 102 -8.3684
105 102 -8.3684
106 102 -8.3684
107 102 -8.3684
108 102 -8.3684
109 102 -8.3684
110 102 -8.3684
111 102 -8.3684
112 102 -8.3684
113 102 -8.3684
114 102 -8.3684
115 102 -8.3684
116 102 -8.3684
117 102 -8.3684
118 102 -8.3684
119 102 -8.3684
0 103 -8.3684
1 103 -8.3684
2 103 -8.3684
3 103 -8.3684
4 103 -8.3684
5 103 -8.3684
6 103 -8.3684
7 103 -8.3684
8 103 -8.3684
9 103 -8.3684
10 103 -8.3684
11 103 -8.3684
12 103 -8.3684
13 103 -8.3684
14 103 -8.3684
15 103 -8.3684
16 103 -8.3684
17 103 -8.3684
18 103 -8.3684
19 103 -8.3684
20 103 -8.3684
21 103 -8.3684
22 103 -8.3684
23 103 -8.3684
24 103 -8.3684
25 103 -8.3684
26 103 -8.3684
27 103 -8.3684
28 103 -8.3684
29 103 -8.3684
30 103 -8.3684
31 103 -8.3684
32 103 -8.3684
33 103 -8.3684
34 103 -8.3684
35 103 -1.29778
36 103 -0.952056
37 103 -0.161144
38 103 1.01915
39 103 1.93257
40 103 2.35512
41 103 2.39565
42 103 2.31779
43 103 2.22958
44 103 2.39877
45 103 2.88877
46 103 3.6324
47 103 4.60171
48 103 5.69601
49 103 6.77722
50 103 7.79082
51 103 8.6686
52 103 9.38166
53 103 9.91728
54 103 10.3515
55 103 10.682
56 103 10.9698
57 103 11.2292
58 103 11.4647
59 103 11.6721
60 103 11.8652
61 103 12.0142
62 103 12.116
63 103 12.1789
64 103 12.2111
65 103 12.1857
66 103 12.1138
67 103 12.022
68 103 11.9129
69 103 11.795
70 103 11.6954
71 103 11.6395
72 103 11.6004
73 103 11.5748
74 103 11.5108
75 103 11.3779
76 103 11.0904
77 103 10.603
78 103 9.94947
79 103 9.13484
80 103 8.14616
81 103 7.12694
82 103 6.11239
83 103 5.08932
84 103 4.24221
85 103 3.72908
86 103 3.36112
87 103 3.12294
88 103 1.22887
89 103 0.636952
90 103 -0.0382071
91 103 -8.3684
92 103 -8.3684
93 103 -8.3684
94 103 -8.3684
95 103 -8.3684
96 103 -8.3684
97 103 -8.3684
98 103 -8.3684
99 103 -8.3684
100 103 -8.3684
101 103 -8.3684
102 103 -8.3684
103 103 -8.3684
104 103 -8.3684
105 103 -8.3684
106 103 -8.3684
107 103 -8.3684
108 103 -8.3684
109 103 -8.3684
110 103 -8.3684
111 103 -8.3684
112 103 -8.3684
113 103 -8.3684
114 103 -8.3684
115 103 -8.3684
116 103 -8.3684
117 103 -8.3684
118 103 -8.3684
119 103 -8.3684
0 104 -8.3684
1 104 -8.3684
2 104 -8.3684
3 104 -8.3684
4 104 -8.3684
5 104 -8.3684
6 104 -8.3684
7 104 -8.3684
8 104 -8.3684
9 104 -8.3684
10 104 -8.3684
11 104 -8.3684
12 104 -8.3684
13 104 -8.3684
14 104 -8.3684
15 104 -8.3684
16 104 -8.3684
17 104 -8.3684
18 104 -8.3684
19 104 -8.3684
20 104 -8.3684
21 104 -8.3684
22 104 -8.3684
23 104 -8.3684
24 104 -8.3684
25 104 -8.3684
26 104 -8.3684
27 104 -8.3684
28 104 -8.3684
29 104 -8.3684
30 104 -8.3684
31 104 -8.3684
32 104 -8.3684
33 104 -8.3684
34 104 -8.3684
35 104 -8.3684
36 104 -1.19965
37 104 -0.979722
38 104 -0.163781
39 104 0.501021
40 104 1.08417
41 104 1.2322
42 104 1.32598
43 104 1.45386
44 104 1.89986
45 104 2.65166
46 104 3.63834
47 104 4.77966
48 104 6.00429
49 104 7.17784
50 104 8.25661
51 104 9.16111
52 104 9.88387
53 104 10.3989
54 104 10.796
55 104 11.0853
56 104 11.3143
57 104 11.503
58 104 11.6658
59 104 11.7933
60 104 11.9073
61 104 11.9969
62 104 12.0639
63 104 12.1094
64 104 12.1347
65 104 12.1145
66 104 12.0596
67 104 11.9901
68 104 11.9074
69 104 11.8217
70 104 11.7572
71 104 11.7358
72 104 11.7306
73 104 11.7328
74 104 11.7014
75 104 11.5905
76 104 11.3023
77 104 10.8031
78 104 10.1674
79 104 9.3759
80 104 8.40691
81 104 7.40244
82 104 6.39845
83 104 5.36344
84 104 4.37195
85 104 3.70126
86 104 3.19151
87 104 2.9461
88 104 1.23248
89 104 0.70985
90 104 0.125157
91 104 -8.3684
92 104 -8.3684
93 104 -8.3684
94 104 -8.3684
95 104 -8.3684
96 104 -8.3684
97 104 -8.3684
98 104 -8.3684
99 104 -8.3684
100 104 -8.3684
101 104 -8.3684
102 104 -8.3684
103 104 -8.3684
104 104 -8.3684
105 104 -8.3684
106 104 -8.3684
107 104 -8.3684
108 104 -8.3684
109 104 -8.3684
110 104 -8.3684
111 104 -8.3684
112 104 -8.3684
113 104 -8.3684
114 104 -8.3684
115 104 -8.3684
116 104 -8.3684
117 104 -8.3684
118 104 -8.3684
119 104 -8.3684
0 105 -8.3684
1 105 -8.3684
2 105 -8.3684
3 105 -8.3684
4 105 -8.3684
5 105 -8.3684
6 105 -8.3684
7 105 -8.3684
8 105 -8.3684
9 105 -8.3684
10 105 -8.3684
11 105 -8.3684
12 105 -8.3684
13 105 -8.3684
14 105 -8.3684
15 105 -8.3684
16 105 -8.3684
17 105 -8.3684
18 105 -8.3684
19 105 -8.3684
20 105 -8.3684
21 105 -8.3684
22 105 -8.3684
23 105 -8.3684
24 105 -8.3684
25 105 -8.3684
26 105 -8.3684
27 105 -8.3684
28 105 -8.3684
29 105 -8.3684
30 105 -8.3684
31 105 -8.3684
32 105 -8.3684
33 105 -8.3684
34 105 -8.3684
35 105 -8.3684
36 105 -1.72573
37 105 -1.73423
38 105 -1.33616
39 105 -0.865564
40 105 -0.0643469
41 105 0.302369
42 105 0.603479
43 105 1.02336
44 105 1.74462
45 105 2.75339
46 105 3.9368
47 105 5.21205
48 105 6.49969
49 105 7.69954
50 105 8.76304
51 105 9.63057
52 105 10.3045
53 105 10.7772
54 105 11.1309
55 105 11.3781
56 105 11.565
57 105 11.708
58 105 11.8208
59 105 11.8949
60 105 11.9563
61 105 12.0023
62 105 12.0378
63 105 12.064
64 105 12.0813
65 105 12.0648
66 105 12.0307
67 105 11.9875
68 105 11.9364
69 105 11.8885
70 105 11.8641
71 105 11.8755
72 105 11.9002
73 105 11.9266
74 105 11.9175
75 105 11.8201
76 105 11.5096
77 105 10.9922
78 105 10.3483
79 105 9.56641
80 105 8.61984
81 105 7.65142
82 105 6.68828
83 105 5.67081
84 105 4.64061
85 105 3.82334
86 105 3.14896
87 105 2.7529
88 105 1.61468
89 105 1.06829
90 105 0.559122
91 105 -8.3684
92 105 -8.3684
93 105 -8.3684
94 105 -8.3684
95 105 -8.3684
96 105 -8.3684
97 105 -8.3684
98 105 -8.3684
99 105 -8.3684
100 105 -8.3684
101 105 -8.3684
102 105 -8.3684
103 105 -8.3684
104 105 -8.3684
105 105 -8.3684
106 105 -8.3684
107 105 -8.3684
108 105 -8.3684
109 105 -8.3684
110 105 -8.3684
111 105 -8.3684
112 105 -8.3684
113 105 -8.3684
114 105 -8.3684
115 105 -8.3684
116 105 -8.3684
117 105 -8.3684
118 105 -8.3684
119 105 -8.3684
0 106 -8.3684
1 106 -8.3684
2 106 -8.3684
3 106 -8.3684
4 106 -8.3684
5 106 -8.3684
6 106 -8.3684
7 106 -8.3684
8 106 -8.3684
9 106 -8.3684
10 106 -8.3684
11 106 -8.3684
12 106 -8.3684
13 106 -8.3684
14 106 -8.3684
15 106 -8.3684
16 106 -8.3684
17 106 -8.3684
18 106 -8.3684
19 106 -8.3684
20 106 -8.3684
21 106 -8.3684
22 106 -8.3684
23 106 -8.3684
24 106 -8.3684
25 106 -8.3684
26 106 -8.3684
27 106 -8.3684
28 106 -8.3684
29 106 -8.3684
30 106 -8.3684
31 106 -8.3684
32 106 -8.3684
33 106 -8.3684
34 106 -8.3684
35 106 -8.3684
36 106 -8.3684
37 106 -2.43162
38 106 -2.52438
39 106 -2.21324
40 106 -1.09149
41 106 -0.388168
42 106 0.22933
43 106 0.915788
44 106 1.87828
45 106 3.05648
46 106 4.3795
47 106 5.72671
48 106 7.02066
49 106 8.1957
50 106 9.19434
51 106 9.99421
52 106 10.6084
53 106 11.0482
54 106 11.3612
55 106 11.5824
56 106 11.7436
57 106 11.8557
58 106 11.9345
59 106 11.9808
60 106 12.0149
61 106 12.0342
62 106 12.0441
63 106 12.0539
64 106 12.0611
65 106 12.0492
66 106 12.0338
67 106 12.0168
68 106 11.9956
69 106 11.9833
70 106 11.9934
71 106 12.0338
72 106 12.0809
73 106 12.1223
74 106 12.1254
75 106 12.0296
76 106 11.6992
77 106 11.1587
78 106 10.5022
79 106 9.72463
80 106 8.80567
81 106 7.87129
82 106 6.9617
83 106 5.99342
84 106 5.00128
85 106 4.06559
86 106 3.27579
87 106 2.72407
88 106 2.10021
89 106 1.46623
90 106 1.00762
91 106 -8.3684
92 106 -8.3684
93 106 -8.3684
94 106 -8.3684
95 106 -8.3684
96 106 -8.3684
97 106 -8.3684
98 106 -8.3684
99 106 -8.3684
100 106 -8.3684
101 106 -8.3684
102 106 -8.3684
103 106 -8.3684
104 106 -8.3684
105 106 -8.3684
106 106 -8.3684
107 106 -8.3684
108 106 -8.3684
109 106 -8.3684
110 106 -8.3684
111 106 -8.3684
112 106 -8.3684
113 106 -8.3684
114 106 -8.3684
115 106 -8.3684
116 106 -8.3684
117 106 -8.3684
118 106 -8.3684
119 106 -8.3684
0 107 -8.3684
1 107 -8.3684
2 107 -8.3684
3 107 -8.3684
4 107 -8.3684
5 107 -8.3684
6 107 -8.3684
7 107 -8.3684
8 107 -8.3684
9 107 -8.3684
10 107 -8.3684
11 107 -8.3684
12 107 -8.3684
13 107 -8.3684
14 107 -8.3684
15 107 -8.3684
16 107 -8.3684
17 107 -8.3684
18 107 -8.3684
19 107 -8.3684
20 107 -8.3684
21 107 -8.3684
22 107 -8.3684
23 107 -8.3684
24 107 -8.3684
25 107 -8.3684
26 107 -8.3684
27 107 -8.3684
28 107 -8.3684
29 107 -8.3684
30 107 -8.3684
31 107 -8.3684
32 107 -8.3684
33 107 -8.3684
34 107 -8.3684
35 107 -8.3684
36 107 -8.3684
37 107 -2.8154
38 107 -3.08303
39 107 -2.98493
40 107 -1.90806
41 107 -0.823889
42 107 0.152281
43 107 1.15233
44 107 2.31969
45 107 3.62147
46 107 5.01102
47 107 6.34325
48 107 7.55736
49 107 8.63403
50 107 9.52529
51 107 10.235
52 107 10.7843
53 107 11.1908
54 107 11.4864
55 107 11.7031
56 107 11.854
57 107 11.9571
58 107 12.024
59 107 12.0635
60 107 12.0917
61 107 12.106
62 107 12.1143
63 107 12.1211
64 107 12.1275
65 107 12.118
66 107 12.1089
67 107 12.1029
68 107 12.1023
69 107 12.1128
70 107 12.1442
71 107 12.1997
72 107 12.2591
73 107 12.3021
74 107 12.3089
75 107 12.199
76 107 11.8591
77 107 11.3015
78 107 10.6312
79 107 9.84754
80 107 8.96811
81 107 8.07026
82 107 7.2219
83 107 6.31594
84 107 5.37837
85 107 4.45275
86 107 3.60589
87 107 2.92948
88 107 2.6087
89 107 1.88719
90 107 1.35386
91 107 -8.3684
92 107 -8.3684
93 107 -8.3684
94 107 -8.3684
95 107 -8.3684
96 107 -8.3684
97 107 -8.3684
98 107 -8.3684
99 107 -8.3684
100 107 -8.3684
101 107 -8.3684
102 107 -8.3684
103 107 -8.3684
104 107 -8.3684
105 107 -8.3684
106 107 -8.3684
107 107 -8.3684
108 107 -8.3684
109 107 -8.3684
110 107 -8.3684
111 107 -8.3684
112 107 -8.3684
113 107 -8.3684
114 107 -8.3684
115 107 -8.3684
116 107 -8.3684
117 107 -8.3684
118 107 -8.3684
119 107 -8.3684
0 108 -8.3684
1 108 -8.3684
2 108 -8.3684
3 108 -8.3684
4 108 -8.3684
5 108 -8.3684
6 108 -8.3684
7 108 -8.3684
8 108 -8.3684
9 108 -8.3684
10 108 -8.3684
11 108 -8.3684
12 108 -8.3684
13 108 -8.3684
14 108 -8.3684
15 108 -8.3684
16 108 -8.3684
17 108 -8.3684
18 108 -8.3684
19 108 -8.3684
20 108 -8.3684
21 108 -8.3684
22 108 -8.3684
23 108 -8.3684
24 108 -8.3684
25 108 -8.3684
26 108 -8.3684
27 108 -8.3684
28 108 -8.3684
29 108 -8.3684
30 108 -8.3684
31 108 -8.3684
32 108 -8.3684
33 108 -8.3684
34 108 -8.3684
35 108 -8.3684
36 108 -8.3684
37 108 -2.88641
38 108 -3.23765
39 108 -3.36783
40 108 -2.37585
41 108 -0.886889
42 108 0.461781
43 108 1.68115
44 108 2.95946
45 108 4.30825
46 108 5.65878
47 108 6.89546
48 108 8.00425
49 108 8.94702
50 108 9.725
51 108 10.3475
52 108 10.8284
53 108 11.2097
54 108 11.5142
55 108 11.746
56 108 11.9062
57 108 12.0237
58 108 12.0995
59 108 12.1412
60 108 12.1703
61 108 12.1888
62 108 12.2025
63 108 12.211
64 108 12.216
65 108 12.2104
66 108 12.2076
67 108 12.2106
68 108 12.226
69 108 12.2564
70 108 12.3028
71 108 12.3668
72 108 12.428
73 108 12.4656
74 108 12.4681
75 108 12.3406
76 108 11.9883
77 108 11.427
78 108 10.7533
79 108 9.97311
80 108 9.12308
81 108 8.28149
82 108 7.48994
83 108 6.6511
84 108 5.77144
85 108 4.87683
86 108 4.02264
87 108 3.19889
88 108 3.08724
89 108 2.27224
90 108 1.65862
91 108 -8.3684
92 108 -8.3684
93 108 -8.3684
94 108 -8.3684
95 108 -8.3684
96 108 -8.3684
97 108 -8.3684
98 108 -8.3684
99 108 -8.3684
100 108 -8.3684
101 108 -8.3684
102 108 -8.3684
103 108 -8.3684
104 108 -8.3684
105 108 -8.3684
106 108 -8.3684
107 108 -8.3684
108 108 -8.3684
109 108 -8.3684
110 108 -8.3684
111 108 -8.3684
112 108 -8.3684
113 108 -8.3684
114 108 -8.3684
115 108 -8.3684
116 108 -8.3684
117 108 -8.3684
118 108 -8.3684
119 108 -8.3684
0 109 -8.3684
1 109 -8.3684
2 109 -8.3684
3 109 -8.3684
4 109 -8.3684
5 109 -8.3684
6 109 -8.3684
7 109 -8.3684
8 109 -8.3684
9 109 -8.3684
10 109 -8.3684
11 109 -8.3684
12 109 -8.3684
13 109 -8.3684
14 109 -8.3684
15 109 -8.3684
16 109 -8.3684
17 109 -8.3684
18 109 -8.3684
19 109 -8.3684
20 109 -8.3684
21 109 -8.3684
22 109 -8.3684
23 109 -8.3684
24 109 -8.3684
25 109 -8.3684
26 109 -8.3684
27 109 -8.3684
28 109 -8.3684
29 109 -8.3684
30 109 -8.3684
31 109 -8.3684
32 109 -8.3684
33 109 -8.3684
34 109 -8.3684
35 109 -8.3684
36 109 -8.3684
37 109 -8.3684
38 109 -3.19466
39 109 -3.21056
40 109 -2.36607
41 109 -0.499952
42 109 1.07509
43 109 2.4077
44 109 3.69328
45 109 5.0096
46 109 6.25093
47 109 7.37146
48 109 8.35731
49 109 9.1621
50 109 9.81386
51 109 10.3488
52 109 10.7695
53 109 11.1314
54 109 11.4653
55 109 11.7265
56 109 11.9161
57 109 12.0607
58 109 12.1602
59 109 12.2073
60 109 12.2458
61 109 12.2772
62 109 12.3051
63 109 12.3227
64 109 12.3362
65 109 12.3419
66 109 12.3478
67 109 12.3611
68 109 12.39
69 109 12.4326
70 109 12.4825
71 109 12.5397
72 109 12.5836
73 109 12.6029
74 109 12.5896
75 109 12.4469
76 109 12.0939
77 109 11.5414
78 109 10.8768
79 109 10.1062
80 109 9.2857
81 109 8.4941
82 109 7.76112
83 109 6.98998
84 109 6.17388
85 109 5.32231
86 109 4.48703
87 109 3.60361
88 109 3.30628
89 109 2.08912
90 109 1.38473
91 109 -8.3684
92 109 -8.3684
93 109 -8.3684
94 109 -8.3684
95 109 -8.3684
96 109 -8.3684
97 109 -8.3684
98 109 -8.3684
99 109 -8.3684
100 109 -8.3684
101 109 -8.3684
102 109 -8.3684
103 109 -8.3684
104 109 -8.3684
105 109 -8.3684
106 109 -8.3684
107 109 -8.3684
108 109 -8.3684
109 109 -8.3684
110 109 -8.3684
111 109 -8.3684
112 109 -8.3684
113 109 -8.3684
114 109 -8.3684
115 109 -8.3684
116 109 -8.3684
117 109 -8.3684
118 109 -8.3684
119 109 -8.3684
0 110 -8.3684
1 110 -8.3684
2 110 -8.3684
3 110 -8.3684
4 110 -8.3684
5 110 -8.3684
6 110 -8.3684
7 110 -8.3684
8 110 -8.3684
9 110 -8.3684
10 110 -8.3684
11 110 -8.3684
12 110 -8.3684
13 110 -8.3684
14 110 -8.3684
15 110 -8.3684
16 110 -8.3684
17 110 -8.3684
18 110 -8.3684
19 110 -8.3684
20 110 -8.3684
21 110 -8.3684
22 110 -8.3684
23 110 -8.3684
24 110 -8.3684
25 110 -8.3684
26 110 -8.3684
27 110 -8.3684
28 110 -8.3684
29 110 -8.3684
30 110 -8.3684
31 110 -8.3684
32 110 -8.3684
33 110 -8.3684
34 110 -8.3684
35 110 -8.3684
36 110 -8.3684
37 110 -8.3684
38 110 -2.76962
39 110 -2.64545
40 110 -1.92415
41 110 0.18733
42 110 1.84019
43 110 3.14378
44 110 4.37084
45 110 5.55151
46 110 6.64642
47 110 7.63355
48 110 8.48085
49 110 9.15304
50 110 9.71642
51 110 10.1782
52 110 10.571
53 110 10.9426
54 110 11.3153
55 110 11.621
56 110 11.8588
57 110 12.0409
58 110 12.1758
59 110 12.2521
60 110 12.3069
61 110 12.3597
62 110 12.4065
63 110 12.438
64 110 12.4628
65 110 12.4819
66 110 12.5006
67 110 12.5223
68 110 12.5588
69 110 12.6021
70 110 12.6433
71 110 12.6814
72 110 12.7041
73 110 12.7022
74 110 12.6756
75 110 12.5236
76 110 12.1734
77 110 11.6312
78 110 10.9867
79 110 10.236
80 110 9.4473
81 110 8.70846
82 110 8.02254
83 110 7.30665
84 110 6.54916
85 110 5.75674
86 110 4.94184
87 110 4.12737
88 110 3.38417
89 110 1.91614
90 110 1.10571
91 110 -8.3684
92 110 -8.3684
93 110 -8.3684
94 110 -8.3684
95 110 -8.3684
96 110 -8.3684
97 110 -8.3684
98 110 -8.3684
99 110 -8.3684
100 110 -8.3684
101 110 -8.3684
102 110 -8.3684
103 110 -8.3684
104 110 -8.3684
105 110 -8.3684
106 110 -8.3684
107 110 -8.3684
108 110 -8.3684
109 110 -8.3684
110 110 -8.3684
111 110 -8.3684
112 110 -8.3684
113 110 -8.3684
114 110 -8.3684
115 110 -8.3684
116 110 -8.3684
117 110 -8.3684
118 110 -8.3684
119 110 -8.3684
0 111 -8.3684
1 111 -8.3684
2 111 -8.3684
3 111 -8.3684
4 111 -8.3684
5 111 -8.3684
6 111 -8.3684
7 111 -8.3684
8 111 -8.3684
9 111 -8.3684
10 111 -8.3684
11 111 -8.3684
12 111 -8.3684
13 111 -8.3684
14 111 -8.3684
15 111 -8.3684
16 111 -8.3684
17 111 -8.3684
18 111 -8.3684
19 111 -8.3684
20 111 -8.3684
21 111 -8.3684
22 111 -8.3684
23 111 -8.3684
24 111 -8.3684
25 111 -8.3684
26 111 -8.3684
27 111 -8.3684
28 111 -8.3684
29 111 -8.3684
30 111 -8.3684
31 111 -8.3684
32 111 -8.3684
33 111 -8.3684
34 111 -8.3684
35 111 -8.3684
36 111 -8.3684
37 111 -8.3684
38 111 -1.85824
39 111 -1.54775
40 111 -1.021
41 111 1.0999
42 111 2.63005
43 111 3.81844
44 111 4.91933
45 111 5.98719
46 111 6.93769
47 111 7.77111
48 111 8.47705
49 111 9.01927
50 111 9.47511
51 111 9.87336
52 111 10.2538
53 111 10.641
54 111 11.0508
55 111 11.4085
56 111 11.7016
57 111 11.9352
58 111 12.1164
59 111 12.2361
60 111 12.3296
61 111 12.4154
62 111 12.4906
63 111 12.5462
64 111 12.5889
65 111 12.62
66 111 12.6456
67 111 12.6701
68 111 12.7056
69 111 12.7441
70 111 12.7723
71 111 12.7882
72 111 12.7902
73 111 12.7692
74 111 12.7286
75 111 12.5736
76 111 12.231
77 111 11.7078
78 111 11.0943
79 111 10.3814
80 111 9.6384
81 111 8.95292
82 111 8.31157
83 111 7.6385
84 111 6.92781
85 111 6.1791
86 111 5.39455
87 111 4.60869
88 111 3.6212
89 111 2.0327
90 111 1.11844
91 111 0.374655
92 111 -8.3684
93 111 -8.3684
94 111 -8.3684
95 111 -8.3684
96 111 -8.3684
97 111 -8.3684
98 111 -8.3684
99 111 -8.3684
100 111 -8.3684
101 111 -8.3684
102 111 -8.3684
103 111 -8.3684
104 111 -8.3684
105 111 -8.3684
106 111 -8.3684
107 111 -8.3684
108 111 -8.3684
109 111 -8.3684
110 111 -8.3684
111 111 -8.3684
112 111 -8.3684
113 111 -8.3684
114 111 -8.3684
115 111 -8.3684
116 111 -8.3684
117 111 -8.3684
118 111 -8.3684
119 111 -8.3684
0 112 -8.3684
1 112 -8.3684
2 112 -8.3684
3 112 -8.3684
4 112 -8.3684
5 112 -8.3684
6 112 -8.3684
7 112 -8.3684
8 112 -8.3684
9 112 -8.3684
10 112 -8.3684
11 112 -8.3684
12 112 -8.3684
13 112 -8.3684
14 112 -8.3684
15 112 -8.3684
16 112 -8.3684
17 112 -8.3684
18 112 -8.3684
19 112 -8.3684
20 112 -8.3684
21 112 -8.3684
22 112 -8.3684
23 112 -8.3684
24 112 -8.3684
25 112 -8.3684
26 112 -8.3684
27 112 -8.3684
28 112 -8.3684
29 112 -8.3684
30 112 -8.3684
31 112 -8.3684
32 112 -8.3684
33 112 -8.3684
34 112 -8.3684
35 112 -8.3684
36 112 -8.3684
37 112 -8.3684
38 112 -1.36773
39 112 -0.904456
40 112 0.0270457
41 112 1.97802
42 112 3.26474
43 112 4.24814
44 112 5.19859
45 112 6.11671
46 112 6.93319
47 112 7.65103
48 112 8.25032
49 112 8.70399
50 112 9.0896
51 112 9.4425
52 112 9.8137
53 112 10.2245
54 112 10.6665
55 112 11.0849
56 112 11.4552
57 112 11.7455
58 112 11.9779
59 112 12.1545
60 112 12.2879
61 112 12.4055
62 112 12.5118
63 112 12.5948
64 112 12.6526
65 112 12.702
66 112 12.7395
67 112 12.7736
68 112 12.8095
69 112 12.8453
70 112 12.8624
71 112 12.859
72 112 12.8418
73 112 12.8056
74 112 12.7529
75 112 12.5994
76 112 12.2699
77 112 11.7725
78 112 11.1981
79 112 10.5231
80 112 9.82559
81 112 9.186
82 112 8.58108
83 112 7.93496
84 112 7.2502
85 112 6.53198
86 112 5.78639
87 112 5.0155
88 112 3.9949
89 112 2.32412
90 112 1.0163
91 112 0.170554
92 112 -8.3684
93 112 -8.3684
94 112 -8.3684
95 112 -8.3684
96 112 -8.3684
97 112 -8.3684
98 112 -8.3684
99 112 -8.3684
100 112 -8.3684
101 112 -8.3684
102 112 -8.3684
103 112 -8.3684
104 112 -8.3684
105 112 -8.3684
106 112 -8.3684
107 112 -8.3684
108 112 -8.3684
109 112 -8.3684
110 112 -8.3684
111 112 -8.3684
112 112 -8.3684
113 112 -8.3684
114 112 -8.3684
115 112 -8.3684
116 112 -8.3684
117 112 -8.3684
118 112 -8.3684
119 112 -8.3684
0 113 -8.3684
1 113 -8.3684
2 113 -8.3684
3 113 -8.3684
4 113 -8.3684
5 113 -8.3684
6 113 -8.3684
7 113 -8.3684
8 113 -8.3684
9 113 -8.3684
10 113 -8.3684
11 113 -8.3684
12 113 -8.3684
13 113 -8.3684
14 113 -8.3684
15 113 -8.3684
16 113 -8.3684
17 113 -8.3684
18 113 -8.3684
19 113 -8.3684
20 113 -8.3684
21 113 -8.3684
22 113 -8.3684
23 113 -8.3684
24 113 -8.3684
25 113 -8.3684
26 113 -8.3684
27 113 -8.3684
28 113 -8.3684
29 113 -8.3684
30 113 -8.3684
31 113 -8.3684
32 113 -8.3684
33 113 -8.3684
34 113 -8.3684
35 113 -8.3684
36 113 -8.3684
37 113 -8.3684
38 113 -0.741589
39 113 -0.178659
40 113 1.0142
41 113 2.65393
42 113 3.61471
43 113 4.39493
44 113 5.19286
45 113 5.94666
46 113 6.6256
47 113 7.23566
48 113 7.74169
49 113 8.12771
50 113 8.47962
51 113 8.82469
52 113 9.21842
53 113 9.67497
54 113 10.1618
55 113 10.6498
56 113 11.0994
57 113 11.4559
58 113 11.7522
59 113 11.9954
60 113 12.1862
61 113 12.3478
62 113 12.4939
63 113 12.6096
64 113 12.6901
65 113 12.7574
66 113 12.8078
67 113 12.8484
68 113 12.8816
69 113 12.9079
70 113 12.9098
71 113 12.8904
72 113 12.8564
73 113 12.8089
74 113 12.7526
75 113 12.6121
76 113 12.2994
77 113 11.8282
78 113 11.289
79 113 10.6484
80 113 9.99001
81 113 9.39433
82 113 8.82936
83 113 8.20807
84 113 7.53857
85 113 6.82783
86 113 6.10981
87 113 5.33706
88 113 4.3794
89 113 2.68036
90 113 1.0059
91 113 0.0723259
92 113 -8.3684
93 113 -8.3684
94 113 -8.3684
95 113 -8.3684
96 113 -8.3684
97 113 -8.3684
98 113 -8.3684
99 113 -8.3684
100 113 -8.3684
101 113 -8.3684
102 113 -8.3684
103 113 -8.3684
104 113 -8.3684
105 113 -8.3684
106 113 -8.3684
107 113 -8.3684
108 113 -8.3684
109 113 -8.3684
110 113 -8.3684
111 113 -8.3684
112 113 -8.3684
113 113 -8.3684
114 113 -8.3684
115 113 -8.3684
116 113 -8.3684
117 113 -8.3684
118 113 -8.3684
119 113 -8.3684
0 114 -8.3684
1 114 -8.3684
2 114 -8.3684
3 114 -8.3684
4 114 -8.3684
5 114 -8.3684
6 114 -8.3684
7 114 -8.3684
8 114 -8.3684
9 114 -8.3684
10 114 -8.3684
11 114 -8.3684
12 114 -8.3684
13 114 -8.3684
14 114 -8.3684
15 114 -8.3684
16 114 -8.3684
17 114 -8.3684
18 114 -8.3684
19 114 -8.3684
20 114 -8.3684
21 114 -8.3684
22 114 -8.3684
23 114 -8.3684
24 114 -8.3684
25 114 -8.3684
26 114 -8.3684
27 114 -8.3684
28 114 -8.3684
29 114 -8.3684
30 114 -8.3684
31 114 -8.3684
32 114 -8.3684
33 114 -8.3684
34 114 -8.3684
35 114 -8.3684
36 114 -8.3684
37 114 -0.90069
38 114 -0.384223
39 114 0.527022
40 114 1.83399
41 114 3.06093
42 114 3.73829
43 114 4.34812
44 114 5.01202
45 114 5.63125
46 114 6.1999
47 114 6.69982
48 114 7.1114
49 114 7.43858
50 114 7.76736
51 114 8.10766
52 114 8.5297
53 114 9.0349
54 114 9.56339
55 114 10.0999
56 114 10.6279
57 114 11.0629
58 114 11.4242
59 114 11.7526
60 114 12.0219
61 114 12.239
62 114 12.4209
63 114 12.5709
64 114 12.6746
65 114 12.7546
66 114 12.8173
67 114 12.8665
68 114 12.8996
69 114 12.9238
70 114 12.9197
71 114 12.8895
72 114 12.8489
73 114 12.7986
74 114 12.7427
75 114 12.6155
76 114 12.3228
77 114 11.8846
78 114 11.3824
79 114 10.7728
80 114 10.1521
81 114 9.59142
82 114 9.05363
83 114 8.44275
84 114 7.77559
85 114 7.05836
86 114 6.34791
87 114 5.55401
88 114 4.63773
89 114 3.27256
90 114 1.36978
91 114 0.375623
92 114 -0.404854
93 114 -8.3684
94 114 -8.3684
95 114 -8.3684
96 114 -8.3684
97 114 -8.3684
98 114 -8.3684
99 114 -8.3684
100 114 -8.3684
101 114 -8.3684
102 114 -8.3684
103 114 -8.3684
104 114 -8.3684
105 114 -8.3684
106 114 -8.3684
107 114 -8.3684
108 114 -8.3684
109 114 -8.3684
110 114 -8.3684
111 114 -8.3684
112 114 -8.3684
113 114 -8.3684
114 114 -8.3684
115 114 -8.3684
116 114 -8.3684
117 114 -8.3684
118 114 -8.3684
119 114 -8.3684
0 115 -8.3684
1 115 -8.3684
2 115 -8.3684
3 115 -8.3684
4 115 -8.3684
5 115 -8.3684
6 115 -8.3684
7 115 -8.3684
8 115 -8.3684
9 115 -8.3684
10 115 -8.3684
11 115 -8.3684
12 115 -8.3684
13 115 -8.3684
14 115 -8.3684
15 115 -8.3684
16 115 -8.3684
17 115 -8.3684
18 115 -8.3684
19 115 -8.3684
20 115 -8.3684
21 115 -8.3684
22 115 -8.3684
23 115 -8.3684
24 115 -8.3684
25 115 -8.3684
26 115 -8.3684
27 115 -8.3684
28 115 -8.3684
29 115 -8.3684
30 115 -8.3684
31 115 -8.3684
32 115 -8.3684
33 115 -8.3684
34 115 -8.3684
35 115 -8.3684
36 115 -8.3684
37 115 -0.702671
38 115 -0.139176
39 115 1.03802
40 115 2.34143
41 115 3.23187
42 115 3.70882
43 115 4.20179
44 115 4.75072
45 115 5.26464
46 115 5.72975
47 115 6.13487
48 115 6.47367
49 115 6.75571
50 115 7.05217
51 115 7.38743
52 115 7.82007
53 115 8.35604
54 115 8.91248
55 115 9.50295
56 115 10.0984
57 115 10.6125
58 115 11.0435
59 115 11.4546
60 115 11.8051
61 115 12.0853
62 115 12.3134
63 115 12.4975
64 115 12.6231
65 115 12.7114
66 115 12.7762
67 115 12.8334
68 115 12.872
69 115 12.8994
70 115 12.8979
71 115 12.8744
72 115 12.8316
73 115 12.7802
74 115 12.7251
75 115 12.6108
76 115 12.3434
77 115 11.9416
78 115 11.4719
79 115 10.9033
80 115 10.3176
81 115 9.77847
82 115 9.25316
83 115 8.65281
84 115 7.96647
85 115 7.22309
86 115 6.51558
87 115 5.68345
88 115 4.75418
89 115 3.58602
90 115 1.52342
91 115 0.48286
92 115 -0.30419
93 115 -8.3684
94 115 -8.3684
95 115 -8.3684
96 115 -8.3684
97 115 -8.3684
98 115 -8.3684
99 115 -8.3684
100 115 -8.3684
101 115 -8.3684
102 115 -8.3684
103 115 -8.3684
104 115 -8.3684
105 115 -8.3684
106 115 -8.3684
107 115 -8.3684
108 115 -8.3684
109 115 -8.3684
110 115 -8.3684
111 115 -8.3684
112 115 -8.3684
113 115 -8.3684
114 115 -8.3684
115 115 -8.3684
116 115 -8.3684
117 115 -8.3684
118 115 -8.3684
119 115 -8.3684
0 116 -8.3684
1 116 -8.3684
2 116 -8.3684
3 116 -8.3684
4 116 -8.3684
5 116 -8.3684
6 116 -8.3684
7 116 -8.3684
8 116 -8.3684
9 116 -8.3684
10 116 -8.3684
11 116 -8.3684
12 116 -8.3684
13 116 -8.3684
14 116 -8.3684
15 116 -8.3684
16 116 -8.3684
17 116 -8.3684
18 116 -8.3684
19 116 -8.3684
20 116 -8.3684
21 116 -8.3684
22 116 -8.3684
23 116 -8.3684
24 116 -8.3684
25 116 -8.3684
26 116 -8.3684
27 116 -8.3684
28 116 -8.3684
29 116 -8.3684
30 116 -8.3684
31 116 -8.3684
32 116 -8.3684
33 116 -8.3684
34 116 -8.3684
35 116 -8.3684
36 116 -1.14348
37 116 -0.627267
38 116 -0.0842824
39 116 1.21759
40 116 2.50668
41 116 3.16235
42 116 3.55522
43 116 4.00348
44 116 4.48443
45 116 4.90984
46 116 5.28973
47 116 5.62144
48 116 5.90318
49 116 6.14835
50 116 6.43227
51 116 6.74143
52 116 7.15775
53 116 7.70044
54 116 8.28347
55 116 8.91303
56 116 9.58125
57 116 10.1696
58 116 10.6798
59 116 11.1666
60 116 11.5901
61 116 11.9281
62 116 12.2
63 116 12.4077
64 116 12.55
65 116 12.6433
66 116 12.7111
67 116 12.7699
68 116 12.8122
69 116 12.8473
70 116 12.854
71 116 12.8396
72 116 12.8049
73 116 12.7588
74 116 12.7028
75 116 12.5991
76 116 12.3513
77 116 11.9861
78 116 11.5489
79 116 11.0213
80 116 10.4556
81 116 9.93933
82 116 9.41474
83 116 8.80812
84 116 8.1015
85 116 7.34111
86 116 6.61531
87 116 5.74188
88 116 4.7914
89 116 3.68537
90 116 1.54356
91 116 0.482528
92 116 -0.295769
93 116 -8.3684
94 116 -8.3684
95 116 -8.3684
96 116 -8.3684
97 116 -8.3684
98 116 -8.3684
99 116 -8.3684
100 116 -8.3684
101 116 -8.3684
102 116 -8.3684
103 116 -8.3684
104 116 -8.3684
105 116 -8.3684
106 116 -8.3684
107 116 -8.3684
108 116 -8.3684
109 116 -8.3684
110 116 -8.3684
111 116 -8.3684
112 116 -8.3684
113 116 -8.3684
114 116 -8.3684
115 116 -8.3684
116 116 -8.3684
117 116 -8.3684
118 116 -8.3684
119 116 -8.3684
0 117 -8.3684
1 117 -8.3684
2 117 -8.3684
3 117 -8.3684
4 117 -8.3684
5 117 -8.3684
6 117 -8.3684
7 117 -8.3684
8 117 -8.3684
9 117 -8.3684
10 117 -8.3684
11 117 -8.3684
12 117 -8.3684
13 117 -8.3684
14 117 -8.3684
15 117 -8.3684
16 117 -8.3684
17 117 -8.3684
18 117 -8.3684
19 117 -8.3684
20 117 -8.3684
21 117 -8.3684
22 117 -8.3684
23 117 -8.3684
24 117 -8.3684
25 117 -8.3684
26 117 -8.3684
27 117 -8.3684
28 117 -8.3684
29 117 -8.3684
30 117 -8.3684
31 117 -8.3684
32 117 -8.3684
33 117 -8.3684
34 117 -8.3684
35 117 -8.3684
36 117 -1.23519
37 117 -0.762677
38 117 0.0499964
39 117 1.44921
40 117 2.48426
41 117 3.07561
42 117 3.49595
43 117 3.94446
44 117 4.39307
45 117 4.75341
46 117 5.03246
47 117 5.28883
48 117 5.50799
49 117 5.71544
50 117 5.97472
51 117 6.26128
52 117 6.65783
53 117 7.18348
54 117 7.7703
55 117 8.43
56 117 9.14048
57 117 9.79523
58 117 10.3897
59 117 10.9418
60 117 11.4128
61 117 11.7927
62 117 12.0923
63 117 12.3057
64 117 12.4557
65 117 12.5536
66 117 12.6233
67 117 12.6819
68 117 12.7269
69 117 12.7652
70 117 12.7832
71 117 12.7826
72 117 12.7585
73 117 12.7211
74 117 12.6694
75 117 12.579
76 117 12.3486
77 117 12.0167
78 117 11.6109
79 117 11.1213
80 117 10.5654
81 117 10.0575
82 117 9.52322
83 117 8.90305
84 117 8.1833
85 117 7.41411
86 117 6.66659
87 117 5.75307
88 117 4.75629
89 117 3.68207
90 117 1.78382
91 117 0.724118
92 117 -0.0309166
93 117 -8.3684
94 117 -8.3684
95 117 -8.3684
96 117 -8.3684
97 117 -8.3684
98 117 -8.3684
99 117 -8.3684
100 117 -8.3684
101 117 -8.3684
102 117 -8.3684
103 117 -8.3684
104 117 -8.3684
105 117 -8.3684
106 117 -8.3684
107 117 -8.3684
108 117 -8.3684
109 117 -8.3684
110 117 -8.3684
111 117 -8.3684
112 117 -8.3684
113 117 -8.3684
114 117 -8.3684
115 117 -8.3684
116 117 -8.3684
117 117 -8.3684
118 117 -8.3684
119 117 -8.3684
0 118 -8.3684
1 118 -8.3684
2 118 -8.3684
3 118 -8.3684
4 118 -8.3684
5 118 -8.3684
6 118 -8.3684
7 118 -8.3684
8 118 -8.3684
9 118 -8.3684
10 118 -8.3684
11 118 -8.3684
12 118 -8.3684
13 118 -8.3684
14 118 -8.3684
15 118 -8.3684
16 118 -8.3684
17 118 -8.3684
18 118 -8.3684
19 118 -8.3684
20 118 -8.3684
21 118 -8.3684
22 118 -8.3684
23 118 -8.3684
24 118 -8.3684
25 118 -8.3684
26 118 -8.3684
27 118 -8.3684
28 118 -8.3684
29 118 -8.3684
30 118 -8.3684
31 118 -8.3684
32 118 -8.3684
33 118 -8.3684
34 118 -8.3684
35 118 -8.3684
36 118 -1.4779
37 118 -1.06548
38 118 -0.0337707
39 118 1.47858
40 118 2.43127
41 118 3.09186
42 118 3.60049
43 118 4.08489
44 118 4.53084
45 118 4.84802
46 118 5.07496
47 118 5.27199
48 118 5.43499
49 118 5.59619
50 118 5.79297
51 118 6.03211
52 118 6.39057
53 118 6.87174
54 118 7.45955
55 118 8.11847
56 118 8.85163
57 118 9.54799
58 118 10.2019
59 118 10.7888
60 118 11.2912
61 118 11.6823
62 118 11.9882
63 118 12.1967
64 118 12.3446
65 118 12.4382
66 118 12.5045
67 118 12.5592
68 118 12.6059
69 118 12.6504
70 118 12.6825
71 118 12.7025
72 118 12.6965
73 118 12.6711
74 118 12.6266
75 118 12.5482
76 118 12.3342
77 118 12.0428
78 118 11.6731
79 118 11.2163
80 118 10.6597
81 118 10.1358
82 118 9.56244
83 118 8.90982
84 118 8.17764
85 118 7.41922
86 118 6.67274
87 118 5.74203
88 118 4.69388
89 118 3.59377
90 118 1.90434
91 118 0.849762
92 118 0.117643
93 118 -8.3684
94 118 -8.3684
95 118 -8.3684
96 118 -8.3684
97 118 -8.3684
98 118 -8.3684
99 118 -8.3684
100 118 -8.3684
101 118 -8.3684
102 118 -8.3684
103 118 -8.3684
104 118 -8.3684
105 118 -8.3684
106 118 -8.3684
107 118 -8.3684
108 118 -8.3684
109 118 -8.3684
110 118 -8.3684
111 118 -8.3684
112 118 -8.3684
113 118 -8.3684
114 118 -8.3684
115 118 -8.3684
116 118 -8.3684
117 118 -8.3684
118 118 -8.3684
119 118 -8.3684
0 119 -8.3684
1 119 -8.3684
2 119 -8.3684
3 119 -8.3684
4 119 -8.3684
5 119 -8.3684
6 119 -8.3684
7 119 -8.3684
8 119 -8.3684
9 119 -8.3684
10 119 -8.3684
11 119 -8.3684
12 119 -8.3684
13 119 -8.3684
14 119 -8.3684
15 119 -8.3684
16 119 -8.3684
17 119 -8.3684
18 119 -8.3684
19 119 -8.3684
20 119 -8.3684
21 119 -8.3684
22 119 -8.3684
23 119 -8.3684
24 119 -8.3684
25 119 -8.3684
26 119 -8.3684
27 119 -8.3684
28 119 -8.3684
29 119 -8.3684
30 119 -8.3684
31 119 -8.3684
32 119 -8.3684
33 119 -8.3684
34 119 -8.3684
35 119 -1.99973
36 119 -1.88962
37 119 -1.1943
38 119 0.00981592
39 119 1.38811
40 119 2.38068
41 119 3.19383
42 119 3.81427
43 119 4.34025
44 119 4.79246
45 119 5.06898
46 119 5.26109
47 119 5.42204
48 119 5.55499
49 119 5.67555
50 119 5.83242
51 119 6.0325
52 119 6.34758
53 119 6.78883
54 119 7.36285
55 119 8.01532
56 119 8.74862
57 119 9.45543
58 119 10.1359
59 119 10.7247
60 119 11.224
61 119 11.6044
62 119 11.9035
63 119 12.0887
64 119 12.2199
65 119 12.3052
66 119 12.3603
67 119 12.403
68 119 12.4436
69 119 12.4908
70 119 12.5377
71 119 12.5789
72 119 12.6019
73 119 12.6031
74 119 12.5731
75 119 12.5062
76 119 12.3134
77 119 12.0504
78 119 11.705
79 119 11.2757
80 119 10.6983
81 119 10.1417
82 119 9.52313
83 119 8.83632
84 119 8.09407
85 119 7.37021
86 119 6.63958
87 119 5.70836
88 119 4.60061
89 119 3.41585
90 119 1.80505
91 119 0.759617
92 119 0.0517237
93 119 -8.3684
94 119 -8.3684
95 119 -8.3684
96 119 -8.3684
97 119 -8.3684
98 119 -8.3684
99 119 -8.3684
100 119 -8.3684
101 119 -8.3684
102 119 -8.3684
103 119 -8.3684
104 119 -8.3684
105 119 -8.3684
106 119 -8.3684
107 119 -8.3684
108 119 -8.3684
109 119 -8.3684
110 119 -8.3684
111 119 -8.3684
112 119 -8.3684
113 119 -8.3684
114 119 -8.3684
115 119 -8.3684
116 119 -8.3684
117 119 -8.3684
118 119 -8.3684
119 119 -8.3684
0 120 -8.3684
1 120 -8.3684
2 120 -8.3684
3 120 -8.3684
4 120 -8.3684
5 120 -8.3684
6 120 -8.3684
7 120 -8.3684
8 120 -8.3684
9 120 -8.3684
10 120 -8.3684
11 120 -8.3684
12 120 -8.3684
13 120 -8.3684
14 120 -8.3684
15 120 -8.3684
16 120 -8.3684
17 120 -8.3684
18 120 -8.3684
19 120 -8.3684
20 120 -8.3684
21 120 -8.3684
22 120 -8.3684
23 120 -8.3684
24 120 -8.3684
25 120 -8.3684
26 120 -8.3684
27 120 -8.3684
28 120 -8.3684
29 120 -8.3684
30 120 -8.3684
31 120 -8.3684
32 120 -8.3684
33 120 -8.3684
34 120 -8.3684
35 120 -2.34486
36 120 -2.31304
37 120 -1.42109
38 120 -0.032575
39 120 1.32097
40 120 2.45925
41 120 3.42461
42 120 4.1535
43 120 4.71385
44 120 5.14556
45 120 5.40737
46 120 5.57908
47 120 5.71168
48 120 5.82364
49 120 5.92222
50 120 6.04868
51 120 6.22673
52 120 6.52286
53 120 6.92355
54 120 7.46763
55 120 8.08685
56 120 8.78753
57 120 9.46855
58 120 10.1367
59 120 10.7052
60 120 11.1827
61 120 11.5392
62 120 11.812
63 120 11.9769
64 120 12.0846
65 120 12.1571
66 120 12.2045
67 120 12.2338
68 120 12.2647
69 120 12.3093
70 120 12.3609
71 120 12.4139
72 120 12.4646
73 120 12.4911
74 120 12.4809
75 120 12.4335
76 120 12.2668
77 120 12.0289
78 120 11.7064
79 120 11.281
80 120 10.6811
81 120 10.0832
82 120 9.41758
83 120 8.69649
84 120 7.96853
85 120 7.28674
86 120 6.58209
87 120 5.66905
88 120 4.50965
89 120 3.21195
90 120 1.63091
91 120 0.322078
92 120 -0.368197
93 120 -8.3684
94 120 -8.3684
95 120 -8.3684
96 120 -8.3684
97 120 -8.3684
98 120 -8.3684
99 120 -8.3684
100 120 -8.3684
101 120 -8.3684
102 120 -8.3684
103 120 -8.3684
104 120 -8.3684
105 120 -8.3684
106 120 -8.3684
107 120 -8.3684
108 120 -8.3684
109 120 -8.3684
110 120 -8.3684
111 120 -8.3684
112 120 -8.3684
113 120 -8.3684
114 120 -8.3684
115 120 -8.3684
116 120 -8.3684
117 120 -8.3684
118 120 -8.3684
119 120 -8.3684
0 121 -8.3684
1 121 -8.3684
2 121 -8.3684
3 121 -8.3684
4 121 -8.3684
5 121 -8.3684
6 121 -8.3684
7 121 -8.3684
8 121 -8.3684
9 121 -8.3684
10 121 -8.3684
11 121 -8.3684
12 121 -8.3684
13 121 -8.3684
14 121 -8.3684
15 121 -8.3684
16 121 -8.3684
17 121 -8.3684
18 121 -8.3684
19 121 -8.3684
20 121 -8.3684
21 121 -8.3684
22 121 -8.3684
23 121 -8.3684
24 121 -8.3684
25 121 -8.3684
26 121 -8.3684
27 121 -8.3684
28 121 -8.3684
29 121 -8.3684
30 121 -8.3684
31 121 -8.3684
32 121 -8.3684
33 121 -8.3684
34 121 -2.45548
35 121 -2.72132
36 121 -2.69615
37 121 -1.52992
38 121 0.129064
39 121 1.58823
40 121 2.85261
41 121 3.9104
42 121 4.6687
43 121 5.19277
44 121 5.57977
45 121 5.80613
46 121 5.9601
47 121 6.06852
48 121 6.16945
49 121 6.26738
50 121 6.38537
51 121 6.57508
52 121 6.87013
53 121 7.23787
54 121 7.71959
55 121 8.28908
56 121 8.90716
57 121 9.52816
58 121 10.144
59 121 10.6823
60 121 11.121
61 121 11.4519
62 121 11.6998
63 121 11.8533
64 121 11.938
65 121 11.9976
66 121 12.0356
67 121 12.0537
68 121 12.0725
69 121 12.1061
70 121 12.1585
71 121 12.2191
72 121 12.2829
73 121 12.3324
74 121 12.3412
75 121 12.31
76 121 12.1685
77 121 11.9438
78 121 11.6161
79 121 11.1747
80 121 10.5344
81 121 9.87972
82 121 9.18917
83 121 8.45724
84 121 7.75928
85 121 7.14292
86 121 6.49532
87 121 5.61147
88 121 4.42992
89 121 3.02191
90 121 1.40154
91 121 -0.144606
92 121 -0.824405
93 121 -8.3684
94 121 -8.3684
95 121 -8.3684
96 121 -8.3684
97 121 -8.3684
98 121 -8.3684
99 121 -8.3684
100 121 -8.3684
101 121 -8.3684
102 121 -8.3684
103 121 -8.3684
104 121 -8.3684
105 121 -8.3684
106 121 -8.3684
107 121 -8.3684
108 121 -8.3684
109 121 -8.3684
110 121 -8.3684
111 121 -8.3684
112 121 -8.3684
113 121 -8.3684
114 121 -8.3684
115 121 -8.3684
116 121 -8.3684
117 121 -8.3684
118 121 -8.3684
119 121 -8.3684
0 122 -8.3684
1 122 -8.3684
2 122 -8.3684
3 122 -8.3684
4 122 -8.3684
5 122 -8.3684
6 122 -8.3684
7 122 -8.3684
8 122 -8.3684
9 122 -8.3684
10 122 -8.3684
11 122 -8.3684
12 122 -8.3684
13 122 -8.3684
14 122 -8.3684
15 122 -8.3684
16 122 -8.3684
17 122 -8.3684
18 122 -8.3684
19 122 -8.3684
20 122 -8.3684
21 122 -8.3684
22 122 -8.3684
23 122 -8.3684
24 122 -8.3684
25 122 -8.3684
26 122 -8.3684
27 122 -8.3684
28 122 -8.3684
29 122 -8.3684
30 122 -8.3684
31 122 -8.3684
32 122 -8.3684
33 122 -8.3684
34 122 -2.60451
35 122 -2.85218
36 122 -2.59417
37 122 -1.10443
38 122 0.581611
39 122 2.24493
40 122 3.72283
41 122 4.90438
42 122 5.66233
43 122 6.08888
44 122 6.33737
45 122 6.42024
46 122 6.45235
47 122 6.5128
48 122 6.62609
49 122 6.71617
50 122 6.84192
51 122 7.04213
52 122 7.32295
53 122 7.64105
54 122 8.0503
55 122 8.51351
56 122 9.02268
57 122 9.54642
58 122 10.0573
59 122 10.5445
60 122 10.9736
61 122 11.3015
